# .PCD v0.7 - Point Cloud Data file format
VERSION 0.7
FIELDS x y z rgb
SIZE 4 4 4 4
TYPE F F F F
COUNT 1 1 1 1
WIDTH 1042
HEIGHT 1
VIEWPOINT 0 0 0 1 0 0 0
POINTS 1042
DATA ascii
0.70028961 -2.9320257 0.76927596 1.2716523e-38
2.1709743 -2.9409304 0.76753658 8.5734537e-39
-1.2608184 -2.8862376 0.7816304 1.2815534e-38
-1.2301469 -2.8877673 0.75399041 1.2908089e-38
-1.1930541 -2.8759899 0.77063638 1.253895e-38
-1.0818917 -2.8659832 0.77818614 1.3090689e-38
-1.0254089 -2.8621874 0.77658361 1.2997412e-38
-0.95820928 -2.8804481 0.79022294 1.2536075e-38
-0.92828661 -2.8923805 0.79339749 1.2260205e-38
0.69289291 -2.8535519 0.77886641 1.4278786e-38
0.75255072 -2.8919888 0.75584781 1.2532839e-38
2.1373637 -2.8686004 0.76028669 8.1135545e-39
2.1809323 -2.884589 0.75262868 9.4928792e-39
-1.2974147 -2.8447487 0.79372925 1.2722977e-38
-1.2109318 -2.8116984 0.7757737 1.2630429e-38
-1.1827404 -2.8214271 0.79982036 1.2170171e-38
-1.1226668 -2.8299146 0.76544839 1.3183244e-38
-1.0843228 -2.822644 0.78736889 1.3182523e-38
-0.98398662 -2.8327842 0.78195655 1.2720465e-38
-0.94703484 -2.8362687 0.7871272 1.2443878e-38
0.56565797 -2.8236375 0.77298707 1.4370617e-38
2.099896 -2.8132446 0.77450615 8.3905072e-39
2.1909852 -2.8090391 0.76312697 8.0228008e-39
2.2378006 -2.826648 0.77462149 8.1149965e-39
2.2721574 -2.8304558 0.78325069 8.1149965e-39
3.0964839 -2.8030133 0.77097344 1.1990852e-38
3.1935449 -2.8261895 0.78324944 9.6823488e-39
-1.2973415 -2.7997217 0.77864563 1.2723337e-38
-1.2324024 -2.7662756 0.78380424 1.3090688e-38
-1.182126 -2.7672875 0.79377329 1.2813021e-38
-1.1238513 -2.7727728 0.77064073 1.3274719e-38
-1.0844767 -2.7891421 0.77209073 1.3090688e-38
0.54168469 -2.7541256 0.79023129 1.4462454e-38
2.0536966 -2.7702088 0.78793097 8.3905072e-39
2.9842772 -2.767241 0.79911804 7.5629241e-39
3.0335474 -2.7961807 0.78086877 1.115494e-38
3.0718503 -2.7698636 0.77905154 1.25386e-38
3.111567 -2.7660267 0.75463432 1.1247517e-38
3.1921535 -2.7960858 0.77477205 7.9320794e-39
-1.3108474 -2.7382495 0.77524388 1.1801381e-38
-1.2535324 -2.7035501 0.77751565 1.3550947e-38
-1.2275684 -2.7330434 0.76927823 1.2630068e-38
-1.1920358 -2.7338519 0.79143852 1.1893585e-38
-1.1326617 -2.720387 0.76769871 1.36435e-38
0.56139028 -2.725949 0.77983254 1.4555733e-38
2.0370705 -2.713433 0.77373689 8.39051e-39
3.1182799 -2.712852 0.78592801 6.5538323e-39
-1.3511782 -2.6510866 0.79826194 1.2353836e-38
-1.3298733 -2.6920745 0.77782708 1.2262359e-38
-1.2583781 -2.6628382 0.7931937 1.3274719e-38
-1.2233826 -2.6789207 0.77833086 1.2353482e-38
-1.1760871 -2.6893196 0.77181274 1.2814461e-38
0.57976437 -2.6808569 0.77376193 1.4369907e-38
2.020412 -2.6578565 0.75997758 8.1150021e-39
2.6912215 -2.6526489 0.77638602 4.0613021e-39
3.1060927 -2.6684971 0.78284311 7.4826423e-39
-1.2730354 -2.6390347 0.75992453 1.1985062e-38
-1.2267551 -2.6297984 0.77679241 1.2537153e-38
1.9893522 -2.6321037 0.7758801 8.1146462e-39
2.6527774 -2.6288588 0.79217178 3.8769136e-39
3.0161912 -2.6282766 0.75152373 7.6594582e-39
-1.3232329 -2.5732765 0.77581668 1.244568e-38
-1.2808692 -2.5877724 0.7701658 1.2537873e-38
-1.2376071 -2.5834188 0.77349961 1.2444957e-38
2.8087022 -2.5898418 0.77664429 6.3625831e-39
-1.3794987 -2.5108962 0.79214483 1.1340414e-38
-1.3395762 -2.5335674 0.77602684 1.2353484e-38
-1.2827636 -2.5210855 0.76309484 1.2352761e-38
2.4220665 -2.5007882 0.75784469 3.4177333e-39
2.4712081 -2.524075 0.77591014 3.3255363e-39
2.9231572 -2.5375521 0.7844128 5.7258765e-39
-1.4141488 -2.4759803 0.76479763 1.2998133e-38
-1.3733807 -2.4795935 0.7734521 1.2353484e-38
-1.3452196 -2.4975905 0.78193313 1.2814102e-38
-1.2821898 -2.4832757 0.79220659 1.1338974e-38
2.475697 -2.4798567 0.76905972 4.3386022e-39
2.5130439 -2.468689 0.77127296 3.8772751e-39
2.6460505 -2.4945066 0.76577568 4.3393393e-39
2.8650179 -2.4658802 0.78541058 3.6982985e-39
3.4701514 -2.4721482 0.75537097 5.6268103e-39
-1.4684714 -2.4146264 0.79442668 1.0971633e-38
-1.426054 -2.4230864 0.76655334 1.2077258e-38
-1.3997157 -2.4397268 0.76119936 1.143297e-38
-1.3100095 -2.4133887 0.77715242 1.1523722e-38
-1.2825178 -2.4434791 0.76732719 1.1983982e-38
2.4435842 -2.4243224 0.75524259 3.9683862e-39
2.8175139 -2.404516 0.76297498 2.3171745e-39
2.8742936 -2.4384573 0.77940071 2.7785142e-39
3.4299994 -2.4178009 0.75464153 5.2580278e-39
-1.5182503 -2.3606048 0.77945852 1.1248221e-38
-1.4680924 -2.375351 0.76383984 1.2077259e-38
-1.4413116 -2.389987 0.79035765 1.2353127e-38
-1.3721118 -2.362597 0.75551283 1.1708475e-38
-1.3369255 -2.3931763 0.7683143 1.1800309e-38
2.4153783 -2.3618386 0.7556451 3.7861599e-39
2.4592829 -2.3715143 0.76466811 3.6021344e-39
2.5031948 -2.3535891 0.76541567 2.9581999e-39
2.7899556 -2.3825548 0.78210282 1.8565579e-39
2.8129964 -2.3618996 0.7773881 2.5933999e-39
3.3380723 -2.3786678 0.76394725 4.9839632e-39
-1.5518422 -2.305542 0.76767141 1.2445325e-38
-1.5283833 -2.3159206 0.77624112 1.1708478e-38
-1.4641011 -2.3305979 0.75732297 1.272191e-38
2.4654877 -2.3491931 0.75278628 2.9574838e-39
3.2701299 -2.3112721 0.77069771 3.3248034e-39
-1.5209125 -2.2750554 0.77477157 1.1708479e-38
-1.4707761 -2.284642 0.77136731 1.2169096e-38
2.9921794 -2.2540503 0.76540041 5.7215297e-39
3.0585878 -2.2723048 0.76913273 5.2609102e-39
3.126157 -2.2902722 0.77272654 4.4318698e-39
3.1521606 -2.2990935 0.75329041 4.0616552e-39
3.2686002 -2.2591991 0.77535141 3.140415e-39
-2.31985 -2.2232413 0.75811982 6.5520036e-39
-2.2694798 -2.2003906 0.75454348 5.908795e-39
-1.5319902 -2.2150373 0.78784621 1.0603211e-38
0.32654968 -2.2311742 0.78671217 1.2717238e-38
2.6757367 -2.2145128 0.75212443 2.408287e-39
2.8745475 -2.2064753 0.77481878 4.1542082e-39
2.9565771 -2.2420592 0.79322886 4.9832458e-39
3.2325299 -2.2139502 0.7908119 4.1531207e-39
-2.2434115 -2.1741343 0.7562058 5.7236849e-39
-1.6738359 -2.1633296 0.78277558 1.0419188e-38
-1.6428227 -2.1808627 0.77973837 1.0235869e-38
-1.5761671 -2.1775365 0.78375 1.0971634e-38
-1.5224741 -2.1652577 0.77139688 1.0327343e-38
0.21737784 -2.1620305 0.78398287 1.0138619e-38
0.31005058 -2.1881418 0.77023774 1.2625401e-38
3.2157013 -2.1558976 0.7710197 4.9789185e-39
-2.2607877 -2.1416485 0.75176066 5.5364125e-39
-2.1850138 -2.1325042 0.75509775 5.7240436e-39
-1.6550233 -2.1193979 0.79801869 9.5887e-39
-1.624348 -2.1282549 0.76522762 1.0695408e-38
-1.5878967 -2.108238 0.76257992 1.1063469e-38
-1.5351809 -2.1291485 0.76010495 1.0603211e-38
0.22938591 -2.1021762 0.77153492 5.89907e-39
0.2647804 -2.1272535 0.77363825 1.1427569e-38
2.6319253 -2.138665 0.7570852 1.8522223e-39
2.8115067 -2.1342242 0.76966035 2.8616729e-39
2.8629074 -2.147737 0.79161906 2.7705618e-39
2.9251475 -2.1225762 0.75761151 3.5088387e-39
-1.7192571 -2.0673671 0.78145283 1.0696125e-38
-1.6797875 -2.0790255 0.77119857 1.1063471e-38
-1.6231703 -2.0766456 0.76838344 1.1247863e-38
2.6416206 -2.0737543 0.78652799 2.2191971e-39
2.664001 -2.0974891 0.75143558 2.6794466e-39
2.7281539 -2.0779822 0.75142831 3.5977904e-39
2.8879466 -2.0876341 0.77844071 4.2456821e-39
2.9764814 -2.0629039 0.77660632 2.6761942e-39
3.0122581 -2.0616395 0.77446741 2.8584275e-39
3.0512786 -2.0575008 0.78362453 3.4108782e-39
3.5186908 -2.0504758 0.76125288 6.1738534e-39
-1.743227 -2.0224531 0.75945437 1.1248586e-38
-1.682574 -2.0263195 0.79085737 9.312832e-39
2.828373 -2.0205083 0.76583838 2.6765557e-39
2.8934801 -2.021909 0.78587592 3.1357332e-39
2.9156935 -2.0498185 0.78227437 2.6776361e-39
2.9743414 -2.0348988 0.76537997 2.5836412e-39
3.0264184 -2.026675 0.75182068 2.9506217e-39
3.0819981 -2.0259521 0.78547472 4.7927252e-39
3.1245763 -2.0246336 0.7759192 6.7288278e-39
3.1541579 -2.0251684 0.77588463 7.9284416e-39
3.4584136 -2.0094881 0.76699728 7.1901633e-39
-1.8061359 -1.9771441 0.77293479 1.0787968e-38
-1.7644373 -1.9718714 0.78140074 9.7745332e-39
-1.7277985 -1.9815152 0.78615296 9.6816159e-39
2.8010294 -1.9725078 0.79271781 3.1364591e-39
2.9115951 -1.9658753 0.75780469 3.0413684e-39
2.9597607 -1.9554681 0.76840657 3.0417257e-39
3.0274134 -1.9568114 0.78259248 7.7433217e-39
3.0771379 -1.9690121 0.77438831 7.1883612e-39
3.3944168 -1.9837534 0.79454494 7.0064895e-39
3.4432468 -1.9916639 0.77903682 8.3908603e-39
-1.7749344 -1.9313831 0.7730062 8.8529357e-39
2.620688 -1.9246507 0.77454877 2.6780019e-39
2.6712914 -1.9134893 0.7695781 2.5840056e-39
2.7122438 -1.9416312 0.77093172 2.76948e-39
2.8346689 -1.9286042 0.76811248 3.0417285e-39
2.8866496 -1.9268385 0.7901333 3.1328451e-39
2.9273078 -1.9222474 0.77272838 3.8707633e-39
2.9718883 -1.9391959 0.75642216 5.3458892e-39
3.0344744 -1.9260902 0.78170443 8.5712831e-39
3.0779421 -1.9328604 0.75622964 7.1890801e-39
3.2537885 -1.9074985 0.78111297 8.5741656e-39
3.3163755 -1.9037266 0.76341742 8.5752516e-39
-1.9437981 -1.8626825 0.79049063 6.3614929e-39
-1.8879734 -1.8517315 0.78444439 6.6380769e-39
-1.8131576 -1.8634692 0.76941901 6.0881486e-39
2.5733819 -1.8839444 0.77717102 3.1382626e-39
2.6459329 -1.8939654 0.76527268 2.584007e-39
2.6775885 -1.853875 0.78777462 3.1342843e-39
2.8008103 -1.879635 0.78976309 3.0417285e-39
2.8694715 -1.872839 0.77691454 4.3317401e-39
2.9347262 -1.8725834 0.76938379 6.8202878e-39
2.9904344 -1.8660177 0.75528371 5.1596959e-39
3.0267653 -1.859575 0.76185715 4.6983646e-39
3.071799 -1.8789449 0.77512813 5.3448116e-39
3.1331003 -1.8681256 0.78315896 8.5730894e-39
3.1823499 -1.8704313 0.78656441 7.3752678e-39
3.229224 -1.8656263 0.79210997 8.6652892e-39
3.2537291 -1.8629912 0.76739347 8.6670871e-39
-1.9419703 -1.8335654 0.77312118 7.1912507e-39
0.10139021 -1.8432589 0.77581155 1.1433337e-38
2.5076771 -1.8209897 0.76119238 2.5840042e-39
2.574265 -1.8211464 0.76666903 2.8580631e-39
2.8191366 -1.8354932 0.79738814 2.8573387e-39
2.8963654 -1.819412 0.78662974 3.2257526e-39
2.9383423 -1.8258091 0.78991765 3.8696857e-39
2.9760129 -1.8364015 0.77397996 4.5139719e-39
3.0168705 -1.8185433 0.79565126 5.5309993e-39
3.0520506 -1.8436199 0.76741827 7.8348111e-39
3.1073902 -1.832299 0.76112032 8.942239e-39
3.1759465 -1.825266 0.76459402 8.7567589e-39
3.2290578 -1.825959 0.78172505 8.3897771e-39
3.2678084 -1.8308452 0.78021425 8.3890526e-39
-1.9546345 -1.783756 0.75012839 7.7494678e-39
-1.9393116 -1.7797862 0.76878709 6.3622145e-39
0.10993719 -1.7665144 0.78856105 1.2814468e-38
3.1828265 -1.783016 0.76962447 8.39014e-39
3.224062 -1.7754153 0.76021975 8.1113881e-39
3.2702892 -1.7765442 0.78888595 8.0195568e-39
-1.9155437 -1.7249261 0.77268994 7.0990579e-39
0.084212579 -1.7135496 0.77332807 1.0142956e-38
0.12290927 -1.7144524 0.75891978 9.0340745e-39
3.1314054 -1.7148321 0.76616293 8.757489e-39
3.1793308 -1.7303452 0.76883113 7.927727e-39
3.2365096 -1.7271224 0.76407123 7.466746e-39
3.2697079 -1.7277746 0.78272438 3.7800082e-39
3.3137393 -1.7483848 0.78205234 3.5019822e-39
-1.919579 -1.6655965 0.76160353 6.8231899e-39
0.083101891 -1.6789927 0.77408338 9.9596518e-39
0.11495578 -1.6873918 0.78797448 1.1248936e-38
0.15356523 -1.6643963 0.79766792 9.3099453e-39
3.1830502 -1.6750326 0.76610243 4.4253762e-39
3.2449751 -1.6907188 0.77117634 3.3183182e-39
-1.9200035 -1.647977 0.76029789 6.9146666e-39
0.026605606 -1.6218944 0.76824015 1.1898284e-38
0.071386926 -1.6251106 0.78521806 1.143875e-38
0.1166732 -1.6006655 0.76782835 9.590851e-39
3.082895 -1.6038283 0.78109837 4.9789087e-39
3.1002455 -1.6018908 0.77282977 2.858412e-39
3.1938345 -1.643631 0.7811709 2.7662164e-39
3.0458899 -1.5553248 0.76319844 3.2253939e-39
3.0751824 -1.5734357 0.78144336 3.2253953e-39
0.13130429 -1.5084764 0.77612853 9.0340689e-39
2.8884075 -1.5032094 0.79874611 4.4257448e-39
2.9444511 -1.5095329 0.785281 3.5938219e-39
2.9835141 -1.53633 0.78175157 4.1491537e-39
2.8629556 -1.4589758 0.76291466 4.9774738e-39
2.9198484 -1.4884188 0.77377158 3.7792893e-39
2.7820945 -1.4186344 0.77800071 4.3328289e-39
2.80371 -1.440359 0.78861022 5.5320923e-39
2.6670775 -1.3521073 0.77718651 5.163307e-39
2.7280567 -1.3842103 0.76730192 4.9785584e-39
2.7505434 -1.3962057 0.79475909 5.0711072e-39
2.6235056 -1.3167262 0.77094054 6.7291866e-39
2.6689472 -1.3268871 0.78654069 7.6518645e-39
2.5847399 -1.2719165 0.76868176 6.4526011e-39
2.6156106 -1.2879678 0.78043389 7.1905248e-39
2.6501117 -1.2977773 0.75484884 7.3742e-39
2.5338857 -1.2267017 0.76234037 7.0961698e-39
2.5591676 -1.2258896 0.78517628 7.4645964e-39
2.6591535 -1.2108433 0.78879106 7.7400987e-39
2.7226694 -1.2087358 0.75298071 7.5557088e-39
2.4661117 -1.1679606 0.76532841 8.2936298e-39
2.5350139 -1.162189 0.78700572 8.4787413e-39
2.5768213 -1.1886451 0.76334286 7.6482632e-39
2.6578624 -1.1787682 0.77673119 8.1099546e-39
2.7081895 -1.1783834 0.78011107 8.5730894e-39
2.6390607 -1.1018815 0.77784234 6.550919e-39
2.6678782 -1.1364101 0.77482396 5.9970305e-39
2.7329099 -1.1289902 0.76757872 5.446019e-39
2.8158369 -1.1483119 0.79616338 6.0903024e-39
1.241344 -1.0651731 0.78421831 1.1822e-38
1.2651088 -1.0660961 0.79791093 1.1914197e-38
2.6551375 -1.0815569 0.78889662 6.9197001e-39
2.6797245 -1.0299884 0.7819972 4.617703e-39
2.4680943 -0.73095655 0.77776939 5.1737915e-39
2.5067945 -0.71212173 0.79127759 5.6336851e-39
2.3700426 -0.66672587 0.77634639 8.7629177e-39
2.4202967 -0.66413862 0.76629519 6.8311478e-39
2.4659321 -0.68426663 0.78235495 6.830066e-39
2.3664911 -0.62676132 0.77867854 9.0395017e-39
2.4145336 -0.61930859 0.7683593 8.766533e-39
2.3282332 -0.56940567 0.75442314 7.7476741e-39
2.3822727 -0.56203437 0.7683537 8.9476662e-39
2.4084249 -0.57029045 0.78968036 1.2907381e-38
2.3185616 -0.51539433 0.76450348 1.2909555e-38
2.3698945 -0.52613771 0.76539642 9.8707128e-39
2.4104564 -0.52597821 0.78614777 1.0327344e-38
2.3269153 -0.48127535 0.76647794 1.2264908e-38
2.3676708 -0.47182992 0.78142446 1.1615918e-38
2.4051743 -0.4995138 0.79835552 1.4103415e-38
2.3445704 -0.42750233 0.78574038 1.3459473e-38
2.373683 -0.4167825 0.77958262 1.3276168e-38
2.4203327 -0.41854849 0.78884453 1.3460921e-38
2.5145407 -0.41382951 0.79537153 1.0232968e-38
2.472657 -0.37716514 0.78871578 1.1620255e-38
2.5064869 -0.35166651 0.79924423 1.1897561e-38
2.1130736 -0.30102089 0.77001917 9.1363469e-39
2.2496893 -0.31468222 0.79377246 9.6873627e-39
2.2693517 -0.31094512 0.75732923 9.3189431e-39
2.3247313 -0.3341375 0.77237815 9.8677896e-39
2.1249228 -0.29328308 0.78524011 8.9512396e-39
2.1819253 -0.29183349 0.7750265 9.0434352e-39
2.2711816 -0.27275398 0.76670218 9.2274649e-39
2.3285644 -0.27684331 0.79086936 8.7636085e-39
2.3804214 -0.28257892 0.75494581 8.029677e-39
2.2852826 -0.21161161 0.7750479 9.4104184e-39
2.3148239 -0.21901317 0.77768898 8.6739324e-39
2.3686192 -0.20823798 0.76964617 8.3969826e-39
2.4178753 -0.21733515 0.78356504 1.153454e-38
2.4703493 -0.20345077 0.7822752 8.2133116e-39
2.3272357 -0.18117782 0.78944129 1.1162864e-38
2.3882341 -0.18677822 0.78546757 1.0703325e-38
2.4335225 -0.18860045 0.76898307 8.8572447e-39
2.4868591 -0.19738469 0.7833451 8.5813752e-39
2.5406332 -0.18772651 0.77005255 5.5382216e-39
2.6345859 -0.15890551 0.77658677 3.6035539e-39
2.6538985 -0.17286989 0.79107672 4.4318754e-39
2.3874407 -0.12162284 0.77363944 1.088847e-38
2.430428 -0.10831763 0.78764027 1.0057266e-38
2.5957685 -0.11016376 0.76447868 3.5113583e-39
2.531136 -0.090394922 0.77092737 5.7262338e-39
2.5805857 -0.074300736 0.76738566 4.2485702e-39
2.6322548 -0.058489367 0.77312207 3.6946677e-39
2.660815 -0.05013407 0.77587223 3.5102821e-39
2.7611279 -0.099398665 0.79964292 3.7868634e-39
2.1394811 -0.014854822 0.78235126 5.2580418e-39
2.1736884 -0.023096684 0.77949321 5.9941649e-39
2.3381639 -0.012768003 0.78848672 6.0881696e-39
2.3871675 -0.013286442 0.78953844 6.8246528e-39
2.5109015 -0.026859064 0.77026021 6.3687208e-39
2.6354451 -0.028722398 0.79989392 6.2772454e-39
2.6741691 -0.027522545 0.78662622 4.1534837e-39
2.712446 -0.035666429 0.78956175 3.7861473e-39
2.1190405 0.023982868 0.77660006 5.8112142e-39
2.1742997 0.025243141 0.77970284 4.6133926e-39
2.2125905 0.014564339 0.78042376 2.954593e-39
2.2897248 0.032324888 0.79233313 4.1520544e-39
2.3459477 0.048132349 0.7610001 9.5919567e-39
2.3586211 0.0023198538 0.78782988 6.5473443e-39
2.4130964 0.017715119 0.79826212 7.2831044e-39
2.4749906 0.01190567 0.76422322 6.8282528e-39
2.3311486 0.084997095 0.77839071 5.2558712e-39
2.4209435 0.064903378 0.78539503 1.0145128e-38
2.4693239 0.099271387 0.77561277 3.6057371e-39
2.3786745 0.13194768 0.76273644 6.3654669e-39
2.515341 0.13386229 0.79021519 3.4213459e-39
1.9335151 0.17508005 0.76912332 4.4286174e-39
1.9905621 0.19373192 0.75349724 1.6627527e-39
2.0329547 0.1845787 0.76162553 3.7836152e-39
2.0670757 0.17443904 0.78468299 5.9963159e-39
2.1270845 0.17114864 0.76649624 5.6293214e-39
2.1684625 0.17422912 0.78266126 5.7222443e-39
2.225354 0.18018031 0.77303278 7.4750599e-39
2.2986035 0.18157583 0.77608597 5.2548062e-39
2.3280101 0.16298778 0.7535038 8.3051765e-39
2.3768322 0.19318387 0.76706421 5.1658209e-39
2.4230933 0.16274083 0.7918371 8.8507693e-39
2.5054746 0.1743236 0.77914953 7.1001327e-39
1.947006 0.24094604 0.75095689 3.413741e-39
1.9766781 0.20312878 0.75037253 1.2017718e-39
2.0267806 0.22708617 0.76712698 2.6769061e-39
2.0716679 0.22633827 0.75939447 2.6772676e-39
2.1381073 0.22931266 0.76958406 3.3208363e-39
2.1727879 0.23531358 0.77576137 4.6144604e-39
2.2735355 0.22712445 0.77863532 3.0435236e-39
2.3349357 0.22487646 0.77706194 3.2297239e-39
2.4181933 0.21788472 0.7542665 2.4935924e-39
2.6120982 0.20855111 0.78576863 8.3897939e-39
0.89521652 0.29663152 0.77087915 1.9815198e-38
0.93617374 0.28608519 0.77511883 1.3275435e-38
0.95847613 0.27539468 0.77705872 1.4651514e-38
2.0293174 0.25741869 0.78096581 3.321551e-39
2.080338 0.28339127 0.76193362 4.9821653e-39
2.1307321 0.26580551 0.79026175 4.2438716e-39
2.1744657 0.27677074 0.7711637 4.8892495e-39
2.2234845 0.26726949 0.78171843 3.5992183e-39
2.2768247 0.27619016 0.77624083 3.5999456e-39
2.4740777 0.2654357 0.75600499 3.3251593e-39
0.84585083 0.33751386 0.77311373 1.6504446e-38
0.86928266 0.32135162 0.76002908 1.5675051e-38
1.9356107 0.32101786 0.77607578 5.442419e-39
1.9745336 0.30381238 0.78310174 5.3498605e-39
2.0193315 0.31255615 0.78236246 4.5244284e-39
2.0688415 0.31804776 0.77106833 4.8892452e-39
2.132555 0.31595024 0.7685793 5.3516723e-39
2.1638513 0.30975443 0.78270477 6.3633019e-39
2.2308605 0.31471425 0.76559234 4.4282783e-39
2.2681508 0.32320872 0.77110195 5.9037671e-39
2.3061924 0.33181649 0.77936971 7.102669e-39
2.3644979 0.32063049 0.77493113 4.6141059e-39
2.7463644 0.3207407 0.79338735 3.0496543e-39
0.83003908 0.35182789 0.77666277 1.7059437e-38
0.88469547 0.36731571 0.76115477 1.3556e-38
0.91519898 0.38685635 0.77288377 1.2538949e-38
1.7495341 0.3800863 0.78325802 4.7113434e-39
1.7710929 0.3640345 0.78904635 5.0801259e-39
2.0250812 0.35549003 0.79526496 5.5411083e-39
2.1590772 0.35735452 0.7834419 5.9052006e-39
0.89445513 0.42138728 0.7858758 1.594947e-38
0.92306811 0.41607261 0.76918942 1.3092851e-38
0.95105255 0.41270223 0.77124804 1.5582149e-38
1.0011439 0.44690716 0.75429022 1.6962183e-38
1.1730973 0.44178766 0.75346583 1.70504e-38
1.759267 0.4007712 0.78811044 4.8957347e-39
0.88438481 0.48130822 0.77548862 1.3934879e-38
0.91699809 0.46179187 0.78322887 1.3568633e-38
0.96733373 0.45814011 0.77741003 1.5314932e-38
1.0223614 0.47160202 0.76650834 1.5865574e-38
1.0691844 0.47728312 0.77596796 1.5494272e-38
1.1428516 0.45744145 0.75999165 1.7508119e-38
1.1661928 0.47104704 0.76896757 1.5856561e-38
1.2196828 0.46576181 0.78700835 1.686601e-38
1.2528263 0.49061131 0.79255319 1.6133149e-38
1.0414934 0.50777149 0.76241457 1.3202008e-38
1.0762362 0.51871717 0.7745229 1.4120718e-38
1.1252199 0.51493996 0.76793987 1.5314568e-38
1.1755482 0.53865045 0.77222687 1.4945781e-38
1.22137 0.54756284 0.7760874 1.5587893e-38
1.3363338 0.53087598 0.76831758 1.0051108e-38
1.2183188 0.55482197 0.77068591 1.513162e-38
1.2679404 0.57447618 0.7700758 1.4945421e-38
1.3203589 0.58723456 0.77627683 1.4942528e-38
1.3069952 0.60716212 0.75514096 1.0808166e-38
1.3769615 0.62229234 0.78219652 1.3470647e-38
1.4225798 0.63530147 0.75932837 1.2828166e-38
1.4505217 0.64990425 0.76214218 1.1726878e-38
1.4296864 0.65392584 0.75119686 9.7947386e-39
1.4785943 0.6674034 0.77523452 1.1262289e-38
1.5139215 0.67820853 0.77098 1.0526523e-38
1.5256578 0.71935183 0.76625532 3.0615961e-39
1.5721382 0.71972346 0.78245467 3.6097084e-39
1.6012607 0.73379129 0.79263419 2.5955705e-39
1.536343 0.76186013 0.77693903 3.8973193e-40
1.5816287 0.78035617 0.75908136 5.7484906e-40
1.6171117 0.77186269 0.78710657 1.2169619e-39
1.6672559 0.78296024 0.75214398 1.6750463e-39
1.5754229 0.81714547 0.78058684 2.9825657e-40
1.622913 0.83278704 0.77557188 1.1258508e-39
1.6676493 0.83061618 0.7731573 1.1240432e-39
1.5487893 0.89289999 0.75983208 6.6054267e-40
1.5905957 0.87598264 0.76101494 1.6746904e-39
1.6238513 0.87325442 0.77083516 7.5743265e-40
1.6714201 0.8760041 0.77165902 1.5832192e-39
1.5800314 0.90634477 0.77533746 1.0260714e-39
1.6371506 0.92965245 0.77022934 9.3785403e-40
1.6604676 0.9169935 0.77934575 1.2137122e-39
1.7349455 0.91347784 0.75590491 1.3084386e-39
1.5829804 0.98095393 0.76669991 6.5295043e-40
1.6767318 0.97631615 0.77273279 1.0249882e-39
1.7323971 0.99026322 0.77996939 1.3930434e-39
1.546198 1.0228326 0.76079917 3.4191725e-39
1.5675831 1.0260516 0.78321785 7.4477892e-40
1.6145433 1.0111065 0.78529596 1.6649303e-39
1.6722622 1.0133415 0.78082883 7.455048e-40
1.723981 1.0256792 0.77107018 1.9885686e-40
1.7781018 1.0209363 0.77414984 1.2104612e-39
1.8028325 1.0413259 0.79228222 1.1160992e-39
1.5356402 1.0748897 0.76611483 8.6779205e-39
1.5759176 1.0645852 0.79306644 7.2006296e-39
1.6219362 1.0788634 0.78269547 7.6576239e-39
1.7218355 1.0593909 0.79444575 1.9486036e-40
1.534893 1.1358554 0.78186882 7.8445529e-39
1.5668955 1.1091744 0.77905923 9.5033427e-39
1.6343241 1.130302 0.7766943 1.033491e-38
1.6730638 1.1163589 0.76071519 4.8979053e-39
1.4989642 1.1987696 0.77647722 4.0652635e-39
1.5288547 1.1782119 0.78350878 5.8180511e-39
1.5838363 1.1691208 0.75730139 8.4844923e-39
1.6078062 1.1736795 0.78544617 8.4006119e-39
1.6698446 1.173812 0.77894443 7.0234508e-39
1.3774143 1.2019354 0.79937118 9.0459799e-39
1.4787025 1.2289172 0.78652102 2.9581873e-39
1.5148821 1.2354172 0.77829641 3.6031882e-39
1.5789518 1.2263849 0.78012538 5.7287435e-39
1.6176261 1.2264813 0.76244855 7.4656712e-39
1.321784 1.2818096 0.78975296 9.139256e-39
1.3654885 1.2747175 0.79571921 7.4786584e-39
1.4752009 1.2796381 0.77606887 2.4979266e-39
1.5176932 1.2618748 0.76552886 2.6866451e-39
1.5742785 1.2807155 0.77094215 3.5077499e-39
1.3349268 1.3228393 0.79236758 9.8739315e-39
1.3856713 1.3368748 0.78920722 5.4460302e-39
1.4308962 1.3142987 0.79298592 4.2478415e-39
1.4681717 1.3282526 0.77941602 3.0507403e-39
1.5284327 1.3039699 0.7696647 3.0543374e-39
1.3228364 1.35857 0.79523206 9.0474191e-39
1.3604664 1.3903145 0.79275769 6.7400158e-39
1.4368976 1.3775373 0.77869439 2.5904824e-39
1.4656988 1.389104 0.76927853 3.1432946e-39
1.5246481 1.3837239 0.77137738 3.0449697e-39
1.2707024 1.4370092 0.77759284 1.0700443e-38
1.3157078 1.431372 0.78809869 9.0434548e-39
1.3960623 1.4342202 0.75302941 2.0405554e-39
1.423059 1.4261744 0.77823198 3.0511018e-39
1.4897373 1.4184883 0.77414191 3.1364493e-39
1.2562922 1.4677088 0.78225648 9.415117e-39
1.3109739 1.4764169 0.78490192 8.30661e-39
1.3798699 1.4709632 0.77194619 3.6042728e-39
1.4089897 1.4630435 0.78887051 4.0638104e-39
1.4751006 1.4692684 0.77608424 2.6769061e-39
1.2341143 1.5239078 0.78437775 1.0056511e-38
1.2680199 1.5175225 0.77713025 9.6884557e-39
1.3308977 1.5396982 0.77761441 5.8148029e-39
1.3652433 1.5190843 0.78025836 3.8794205e-39
1.4230235 1.5343937 0.78522265 2.7687416e-39
1.4641296 1.5251948 0.75164139 2.9542118e-39
1.177385 1.5873941 0.7674551 1.0240899e-38
1.2295344 1.5793445 0.77816963 9.7774017e-39
1.2667246 1.5776742 0.77276504 6.4612555e-39
1.3270624 1.5741163 0.77272248 4.4318698e-39
1.3702111 1.5811275 0.7779029 3.2351357e-39
-0.66437382 1.6347066 0.76256102 8.2065097e-39
-0.64441919 1.6392105 0.76182806 9.6903208e-39
1.1860435 1.6259242 0.75903332 1.0884105e-38
1.2235416 1.6207569 0.77721608 8.1222188e-39
1.2772963 1.6292486 0.77779692 5.9073615e-39
1.3311807 1.61068 0.77181858 4.6180632e-39
1.3672347 1.636116 0.77974558 3.2322491e-39
-0.81223178 1.6968929 0.79520655 8.2046922e-39
-0.77223468 1.6842337 0.79029787 8.2130145e-39
-0.70177042 1.6881996 0.76665318 1.1895045e-38
-0.66023326 1.6659987 0.78929508 7.377835e-39
-0.64217854 1.6694522 0.79987097 8.5879403e-39
1.0854163 1.6897539 0.77639055 8.7654358e-39
1.135164 1.6927631 0.77167481 7.5654395e-39
1.1775491 1.6814631 0.77800906 8.6735863e-39
1.2264545 1.6586431 0.77943629 8.1164412e-39
1.2701463 1.6806759 0.77142674 4.6173457e-39
1.3222671 1.6601753 0.77820444 3.5124429e-39
-0.8330366 1.7240454 0.77489436 9.3095964e-39
-0.79166776 1.7215796 0.78831768 7.1016111e-39
-0.71194631 1.7173772 0.77291477 1.0142978e-38
1.0901687 1.7352966 0.77267694 9.9650482e-39
1.1224693 1.7185664 0.78081274 7.4703571e-39
1.1727341 1.718559 0.77940166 7.1952136e-39
1.2319298 1.7237866 0.77369386 6.0924758e-39
1.2762351 1.718482 0.78134489 3.9705386e-39
1.3103335 1.7244599 0.78117973 3.2311644e-39
-0.86980927 1.7766563 0.75922674 1.2350233e-38
-0.82811958 1.7792596 0.77256292 7.837367e-39
-0.73075926 1.7754993 0.7751956 8.0210198e-39
1.0831382 1.7833267 0.77149051 8.0278595e-39
1.1254143 1.7818297 0.77634031 8.5788711e-39
1.1705799 1.7630768 0.7724508 7.4703529e-39
1.2208731 1.7774082 0.77311361 5.3541947e-39
1.269886 1.7674613 0.77942634 3.7883081e-39
1.3379953 1.7964518 0.78696424 3.3183042e-39
1.357233 1.7659423 0.78127265 2.8591267e-39
-0.90099216 1.8356324 0.78535342 1.6312117e-38
-0.89302605 1.832381 0.77272618 1.216764e-38
-0.83339602 1.8254293 0.78398722 7.2841918e-39
-0.76098418 1.8044467 0.75983596 1.0691441e-38
-0.37270254 1.8309678 0.78481859 7.5647486e-39
-0.34952632 1.8401608 0.79393661 1.2825688e-38
1.0430927 1.8293905 0.76138037 6.1868406e-39
1.0826166 1.8182098 0.77075469 6.2743405e-39
1.1177686 1.8207287 0.77179956 7.5607451e-39
1.1786118 1.8219095 0.76527882 5.6297012e-39
1.2310923 1.8323793 0.76784813 3.0500298e-39
1.2813996 1.8251879 0.77073574 2.4982924e-39
1.3209207 1.8151456 0.76861948 3.2297211e-39
1.3650774 1.8003558 0.75482744 3.7792795e-39
-0.91931027 1.8779012 0.76535416 6.915761e-39
-0.41131541 1.872614 0.79105788 1.0243479e-38
-0.37436351 1.8784133 0.78325105 8.1150357e-39
-0.34063697 1.8665018 0.79356718 6.9248078e-39
1.0314715 1.8770134 0.76985133 7.1988289e-39
1.075078 1.8703059 0.78158289 5.3531087e-39
1.119012 1.8713293 0.77273273 5.2536964e-39
1.1800537 1.8647542 0.76213157 4.9839688e-39
1.2218266 1.8766475 0.75716352 2.868528e-39
1.2670367 1.8806767 0.76492494 2.3988856e-39
1.3207335 1.8670931 0.77328718 2.1233792e-39
-1.181542 1.9348482 0.79756051 1.2539687e-38
-1.1355991 1.9257352 0.76035005 8.3919645e-39
-0.95475364 1.9489542 0.77613568 4.3400652e-39
-0.9398604 1.9211613 0.76749951 5.3552947e-39
-0.37692112 1.9160407 0.78833878 7.3799902e-39
-0.34101847 1.9208274 0.7938596 5.0758309e-39
0.98073924 1.9199196 0.77445048 5.9044846e-39
1.011097 1.9351734 0.77722114 6.7367718e-39
1.0652953 1.9377089 0.77945292 4.7956091e-39
1.1136401 1.9125383 0.75686109 6.1763701e-39
1.1780254 1.9205049 0.75237882 2.7683814e-39
1.2199246 1.9236568 0.76374704 2.8595023e-39
1.2873517 1.9411961 0.76768422 2.1226603e-39
1.3310103 1.9047178 0.781057 2.1233792e-39
1.3678745 1.9155586 0.79167211 1.8475125e-39
-1.3110281 1.9900553 0.79471397 1.4752022e-38
-1.1924628 1.9707532 0.79309779 1.0512104e-38
-1.1342076 1.9700254 0.75617009 7.1012257e-39
-0.97842908 1.9965417 0.79152036 5.2638221e-39
-0.94426656 1.9538736 0.76578569 6.823599e-39
-0.85948718 1.9746197 0.76852107 6.1763995e-39
-0.83646858 1.9915098 0.79667699 8.8475435e-39
-0.38003629 1.9655137 0.7926603 7.9328081e-39
0.98637646 1.9744765 0.76612681 6.4590989e-39
1.0297037 1.9667639 0.78222364 5.1683643e-39
1.0733202 1.9745317 0.77309096 4.8870802e-39
1.110629 1.9593335 0.75760669 6.0845276e-39
1.1560956 1.9601526 0.75234938 4.3335547e-39
1.2094289 1.99096 0.7549119 2.3999688e-39
1.2691418 1.9759467 0.7602486 2.0311863e-39
-1.5685205 2.0356257 0.78416395 2.341769e-38
-1.5489308 2.0330997 0.7862283 2.2772322e-38
-1.3347074 2.0188773 0.79172707 1.3277615e-38
-1.1687417 2.0425093 0.76502144 6.9153939e-39
-1.1268867 2.028578 0.76200897 8.3001402e-39
-0.98616779 2.0291269 0.76784122 8.5861242e-39
-0.86973381 2.0099196 0.79402721 6.0842011e-39
-0.37677121 2.0117052 0.79753697 6.4616535e-39
0.99068534 2.0229032 0.77721614 4.618073e-39
1.0235554 2.0213928 0.77062666 4.2424353e-39
1.2697731 2.0001802 0.77105582 2.6758369e-39
-1.573073 2.0630906 0.7703737 2.2587931e-38
-1.1709789 2.0862811 0.76597261 7.4682076e-39
-1.1257873 2.0734377 0.77175838 9.0413276e-39
-1.0957224 2.0931296 0.75616473 1.1531708e-38
-0.99306333 2.0758977 0.76297176 8.5868459e-39
0.98616451 2.0744796 0.76991475 3.972342e-39
1.0164648 2.0778739 0.77263278 3.3229971e-39
-1.6419265 2.1237512 0.76074594 2.341769e-38
-1.5882922 2.1104913 0.7663883 2.0835133e-38
-1.4762316 2.1315699 0.7513814 1.429032e-38
-1.2598146 2.1460507 0.75642824 9.6801698e-39
-1.218909 2.1190305 0.76814324 8.8504119e-39
-1.1877472 2.1165352 0.7606076 9.7716508e-39
-1.1293867 2.1224985 0.77947038 9.4122822e-39
-1.0943118 2.1174951 0.76510572 1.1256202e-38
-1.029058 2.134135 0.77630651 1.0796303e-38
0.88838267 2.1362977 0.77478188 2.3996087e-39
0.93700063 2.1209996 0.76402617 3.2290078e-39
0.9787755 2.1132011 0.77517998 4.2467625e-39
1.0075358 2.1219091 0.79081082 3.0464159e-39
-1.6333569 2.1779788 0.75396007 2.1112082e-38
-1.4760423 2.1699171 0.77415693 1.327689e-38
-1.4268717 2.1799917 0.76175147 1.1524451e-38
-1.3082072 2.1884315 0.76356292 1.1890706e-38
-1.2869508 2.1876731 0.78566092 1.1430808e-38
-1.2227983 2.1780877 0.75380898 8.573825e-39
-1.1786604 2.1836302 0.75768036 7.5622095e-39
-1.1406052 2.1687808 0.7684437 7.3882985e-39
-1.0338439 2.178988 0.77569121 9.2311349e-39
0.86882544 2.1716292 0.77165437 2.3077704e-39
0.92666233 2.1892285 0.76070631 3.8783471e-39
0.97020793 2.1678681 0.78082365 3.9719847e-39
-1.6250455 2.2239642 0.78626454 1.8161103e-38
-1.5859668 2.2130079 0.76066566 1.687144e-38
-1.4166116 2.2249815 0.76905388 1.0694687e-38
-1.3167831 2.2348959 0.77601463 9.4032256e-39
-1.2703097 2.2316289 0.76083392 1.0968746e-38
-1.2177508 2.2319868 0.7630896 9.956042e-39
-1.163712 2.2161899 0.76451337 8.5763866e-39
-1.1052175 2.2105303 0.77713609 1.0980334e-38
0.87430215 2.2073324 0.77099264 2.3992472e-39
0.92990988 2.2234914 0.77840018 4.5237151e-39
0.96539354 2.2204273 0.77855343 3.8754521e-39
-1.4146923 2.2794673 0.77897054 1.0048957e-38
-1.366176 2.281671 0.77050722 8.9433236e-39
-1.3291163 2.2751307 0.7651484 9.956035e-39
-1.2702012 2.2891674 0.76788032 1.0508128e-38
-1.2208611 2.2749727 0.75688124 8.8504175e-39
-1.1698709 2.2649574 0.77867246 7.9367849e-39
-1.1223801 2.2895494 0.76439154 6.8362093e-39
0.88090354 2.2741082 0.77371699 2.5839986e-39
0.93287534 2.269196 0.78020084 4.2474898e-39
0.98938531 2.2814443 0.77609628 3.5995868e-39
-1.458413 2.3381195 0.75428176 1.050957e-38
-1.4066061 2.3085825 0.77121538 9.5872581e-39
-1.3575051 2.3212872 0.7607187 1.1706311e-38
-1.3202873 2.3259592 0.76590353 1.1153136e-38
-1.2630333 2.3335938 0.77041119 1.0692164e-38
-1.2390907 2.3112097 0.76036137 7.8377047e-39
-1.1613925 2.3168468 0.78318787 9.226463e-39
-1.1289363 2.323051 0.78126037 6.8362093e-39
-1.068591 2.3359058 0.77431458 7.8482047e-39
-1.0409672 2.3049326 0.76845098 8.6750871e-39
-0.82777846 2.3238616 0.76706684 8.0318827e-39
0.69056344 2.3239443 0.79913712 5.0725883e-39
0.72776783 2.319036 0.79332221 3.1375493e-39
0.83394957 2.3236823 0.76170266 3.0460683e-39
0.86967731 2.3258269 0.77895403 2.8627533e-39
0.92499161 2.3148136 0.7726658 3.9698155e-39
0.97227228 2.3148127 0.77808344 2.3059669e-39
-1.4571894 2.377986 0.77179837 9.9563965e-39
-1.4322206 2.3754516 0.76953632 9.4039402e-39
-1.3898196 2.3879447 0.75762397 1.1982178e-38
-1.3033764 2.3962379 0.7762202 1.0507772e-38
-1.285908 2.3853359 0.77510959 7.7429896e-39
-1.1779643 2.364347 0.76958084 9.0431507e-39
-1.1121929 2.3827581 0.78888303 6.4692275e-39
-1.0832869 2.3705277 0.79189861 6.1933609e-39
-0.832017 2.3865554 0.76700777 9.6053334e-39
0.69205523 2.3731596 0.7884497 3.7832788e-39
0.73165113 2.3819363 0.77797067 3.7865257e-39
0.76705295 2.3731658 0.76824212 2.3092292e-39
0.8221755 2.3704393 0.7752248 1.9411585e-39
0.88156384 2.3796895 0.76993865 4.4293559e-39
0.92185104 2.3723683 0.76807964 3.8761835e-39
0.95778531 2.3733091 0.76737052 2.6736677e-39
1.0105411 2.3739381 0.77003276 2.7662276e-39
-1.50694 2.4436479 0.77003825 1.069324e-38
-1.3688805 2.416594 0.77560467 1.1337169e-38
-1.3241105 2.4360681 0.7790454 9.0330053e-39
-1.2928672 2.41433 0.75992024 8.2954431e-39
-0.81595427 2.4282477 0.76770526 7.2104135e-39
0.68924129 2.4098525 0.78649771 3.8783682e-39
0.72601748 2.4367671 0.77955067 4.2500359e-39
0.77722323 2.4136558 0.76829207 3.2319071e-39
0.82158726 2.438777 0.76735425 2.0304717e-39
0.86993068 2.4319005 0.77691221 2.5840028e-39
0.92358351 2.4020493 0.7841326 2.0279409e-39
0.97885728 2.4264216 0.78981119 3.134643e-39
1.0155147 2.4334297 0.79998988 2.8584177e-39
-1.4908755 2.4556522 0.77952898 9.8645582e-39
-1.4107726 2.4752402 0.7727142 1.1613751e-38
-1.3764502 2.4714592 0.78806865 9.0326466e-39
-1.3257546 2.4739957 0.76216102 8.2954431e-39
-1.0198246 2.4887125 0.75662029 5.5501509e-39
-0.82865125 2.480727 0.78242713 9.2376313e-39
-0.66174626 2.4629738 0.76476067 7.3980403e-39
-0.62322897 2.4686291 0.7788536 5.729859e-39
-0.56974733 2.4915316 0.78227025 6.2851964e-39
-0.52513558 2.4856565 0.78432888 5.8206155e-39
-0.47488219 2.485539 0.77402908 1.3926917e-39
0.68785959 2.4698865 0.77847767 4.1639668e-39
0.73186094 2.4729011 0.77438289 3.9734477e-39
0.77248108 2.4722757 0.76914966 2.5865335e-39
0.8459397 2.4754148 0.79244286 1.2014243e-39
0.85638666 2.4609509 0.79891241 1.570211e-39
-1.5206985 2.5289412 0.77783823 9.8645582e-39
-1.4272246 2.5218167 0.77936023 1.1521919e-38
-1.3703233 2.5269601 0.78024602 9.5861749e-39
-1.342294 2.5314224 0.76060164 9.1252009e-39
-1.053053 2.500365 0.75160718 5.6423479e-39
-1.0238339 2.5353498 0.76451898 6.6525411e-39
-0.83518928 2.5334065 0.77964324 1.3290272e-38
-0.70819616 2.5000775 0.75528002 4.6263925e-39
-0.67568654 2.5380919 0.77852136 8.4114706e-39
-0.62677294 2.531333 0.78057343 7.4812214e-39
-0.57617015 2.5272696 0.78521329 7.9454492e-39
-0.52053678 2.530807 0.77096993 7.3908279e-39
-0.47459775 2.5272517 0.773929 5.7291429e-39
-0.42892936 2.5358973 0.77566659 4.2529254e-39
0.64170617 2.5251355 0.77419651 4.259405e-39
0.68218488 2.5214965 0.77244043 4.25761e-39
0.73044002 2.5332179 0.77580559 5.5490803e-39
0.7702868 2.5441625 0.76691133 4.4333468e-39
0.82045126 2.524554 0.76427794 2.0283081e-39
-1.5365171 2.5530639 0.77393836 1.0325176e-38
-1.4511863 2.5528259 0.76902825 1.1614113e-38
-1.4372338 2.5926893 0.79732436 1.124533e-38
-1.3909367 2.5786462 0.78062177 1.0046792e-38
-1.0532418 2.569032 0.75864768 5.3664799e-39
-0.80776942 2.5561361 0.75835276 1.531999e-38
-0.7762478 2.5623357 0.77704269 7.5752219e-39
-0.7353301 2.571275 0.78100681 4.5291522e-39
-0.66397947 2.5770733 0.75886571 1.0160304e-38
-0.62154353 2.5630882 0.76283109 9.1432749e-39
-0.57442796 2.5782006 0.77575886 8.3167568e-39
-0.52613908 2.5672996 0.75855225 9.9730342e-39
-0.47508144 2.5736926 0.76125002 7.1192912e-39
-0.42168838 2.5742862 0.76518303 8.4978971e-39
-0.37900445 2.5721638 0.77966243 6.5625035e-39
-0.34390306 2.5927932 0.78053379 9.8844301e-39
-0.16569333 2.5772662 0.77548087 1.1635424e-38
-0.14181463 2.5675824 0.78375089 1.1544313e-38
0.47511199 2.5851927 0.77448118 5.2843932e-39
0.62906623 2.5686624 0.76969403 4.5356388e-39
0.68373626 2.5742772 0.77004397 3.794841e-39
0.7359103 2.5841339 0.78696191 3.3295342e-39
0.76537287 2.5754547 0.780774 4.068537e-39
-1.4607644 2.6473761 0.78003383 1.0507767e-38
-1.4320807 2.62134 0.7730276 1.0231181e-38
-0.81910306 2.6201754 0.77302343 1.4217967e-38
-0.77242333 2.6341546 0.77118129 5.6344277e-39
-0.73081434 2.6026213 0.77601671 4.89722e-39
-0.66768134 2.6256542 0.78403974 1.3194119e-38
-0.63557744 2.6100335 0.76294082 1.2826421e-38
-0.57200956 2.6324625 0.77945036 5.9243522e-39
-0.52580529 2.6228137 0.77607179 5.5555711e-39
-0.47334641 2.6232767 0.76515722 5.4637342e-39
-0.41442341 2.6298127 0.77586496 7.2136421e-39
-0.37203956 2.6236556 0.77911025 7.0267327e-39
-0.31740004 2.6190114 0.77960998 9.2397823e-39
-0.27794448 2.6290507 0.77183157 8.4121825e-39
-0.22772503 2.6249537 0.7737087 1.0438684e-38
-0.17606361 2.6222541 0.77970606 9.8873125e-39
-0.13574897 2.6155758 0.78806567 9.7965588e-39
-0.095327169 2.6427047 0.79690558 9.8927103e-39
-0.0030947328 2.6461115 0.76078176 4.3516217e-39
0.42882931 2.6191602 0.78372264 2.0571148e-38
0.47343656 2.6361959 0.75592041 8.7896054e-39
0.52131069 2.6356733 0.7814281 4.2677217e-39
0.59812903 2.6299517 0.76492369 4.5381625e-39
0.6260196 2.6046989 0.7757957 3.8895519e-39
0.66656679 2.6321046 0.77820176 5.2786227e-39
0.72116572 2.6245508 0.77623105 5.4684327e-39
-1.4705733 2.6873131 0.77164793 9.1244765e-39
-0.82548374 2.695683 0.77634531 1.8359195e-38
-0.78403127 2.6790955 0.77888232 7.5708975e-39
-0.73229623 2.6810932 0.78833938 9.6917655e-39
-0.67550707 2.6715004 0.76594228 1.2918981e-38
-0.64850533 2.668654 0.75720274 1.2552003e-38
-0.5826332 2.6508222 0.76183653 5.5566487e-39
-0.54692447 2.673871 0.76899469 6.0161891e-39
-0.49658966 2.6660252 0.76488662 5.5562899e-39
-0.4097349 2.6649864 0.78660059 5.6456045e-39
-0.35911614 2.6851604 0.79133499 8.782767e-39
-0.32012799 2.6838906 0.7805593 9.2426718e-39
-0.26324722 2.6786799 0.77607083 8.7784468e-39
-0.22460422 2.6946917 0.75710636 1.1174814e-38
-0.18138008 2.6829553 0.76765943 1.0899671e-38
-0.12969172 2.676625 0.78090632 1.0532685e-38
-0.080472782 2.6823473 0.76578951 1.0812876e-38
-0.027780868 2.6820219 0.77907848 9.6150472e-39
0.016424626 2.666862 0.7681846 7.8608107e-39
0.49961185 2.6973166 0.78742915 3.1653328e-39
0.52521586 2.6728592 0.77204353 3.9918551e-39
0.5850715 2.6687908 0.79262751 3.8935246e-39
0.625256 2.6747243 0.7710039 5.1857068e-39
0.66893893 2.676836 0.77970105 5.0935125e-39
0.71035105 2.6717558 0.76558477 5.4637384e-39
0.75489223 2.6686502 0.76874739 5.189678e-39
-0.80715936 2.7171714 0.76241046 1.3750514e-38
-0.79871833 2.7466741 0.75850004 5.0052784e-39
-0.70792913 2.7215202 0.77372444 1.310374e-38
-0.52880228 2.7075706 0.76958627 6.2924187e-39
-0.44417572 2.7244518 0.75630069 6.200223e-39
-0.39993933 2.7170317 0.79120493 6.0158318e-39
-0.32216245 2.720021 0.77943486 7.4902416e-39
-0.27404007 2.708874 0.77082896 8.5965863e-39
-0.22925909 2.7290192 0.76648945 7.2147281e-39
-0.19534001 2.7040422 0.78603846 8.233196e-39
-0.12043414 2.7194092 0.76063132 8.5980185e-39
-0.082741663 2.7349849 0.76773679 7.4027221e-39
-0.019184848 2.720628 0.76535439 1.0621273e-38
0.024612933 2.7247858 0.77332795 8.5980128e-39
0.33853129 2.7233605 0.75061858 2.3234378e-38
0.3848854 2.7248945 0.76805276 2.2407857e-38
0.42968354 2.7298536 0.7859093 1.9285453e-38
0.47087806 2.718111 0.75842786 1.3662992e-38
0.52289081 2.7285111 0.77319878 4.0847612e-39
0.57922143 2.7174993 0.78723741 3.9875209e-39
0.6321376 2.7280786 0.77897787 4.5392569e-39
0.66261446 2.7403002 0.76748598 4.355586e-39
0.72269797 2.7393785 0.78734946 4.9091185e-39
-0.369129 2.7577682 0.79147851 6.0161919e-39
-0.2209748 2.798806 0.7661103 6.016908e-39
-0.18717821 2.7703629 0.78340244 6.0165492e-39
-0.12825172 2.7921896 0.7977556 6.0169108e-39
-0.065735452 2.7742844 0.78062421 1.1639022e-38
-0.031465545 2.7838283 0.78876406 1.1638668e-38
0.018334597 2.7687693 0.77022117 5.3708183e-39
0.081118584 2.78824 0.77200139 2.1397668e-38
0.11955157 2.7876892 0.76921999 2.3234378e-38
0.34727523 2.7613461 0.75405121 2.3234378e-38
0.36591867 2.7663133 0.78718489 2.3234378e-38
0.42136872 2.7687397 0.77763098 2.0754818e-38
0.4734261 2.7962332 0.77796739 2.1305832e-38
0.51412672 2.7833431 0.77549374 3.3518905e-39
0.58047611 2.7830448 0.79009247 3.4339926e-39
0.61487734 2.779789 0.78225905 3.7084145e-39
0.67970419 2.7741864 0.7775262 3.8906379e-39
0.72143662 2.7826269 0.7851373 4.8176459e-39
0.79377949 2.783921 0.77413523 4.3408107e-39
0.83177286 2.7945442 0.77922666 4.2482507e-39
-0.18243425 2.814925 0.76634246 6.016908e-39
-0.13900256 2.8078129 0.79003531 5.7403211e-39
-0.087652326 2.8039391 0.75370669 6.1087435e-39
-0.029981554 2.8166535 0.782673 8.4193879e-39
0.031142751 2.8160808 0.77219325 5.6452458e-39
0.078344256 2.8249166 0.7768957 1.8082959e-38
0.11752426 2.8307683 0.76196504 2.2499694e-38
0.16875404 2.8321023 0.76938975 2.2958871e-38
0.22354101 2.8334658 0.76986051 2.3234378e-38
0.26639187 2.8161817 0.78906739 2.3234378e-38
0.33060542 2.812335 0.78002512 2.3234378e-38
0.36312178 2.8415558 0.79324168 1.4775455e-38
0.42433798 2.8357384 0.76470011 1.652823e-38
0.54360276 2.8259587 0.76536489 3.0713408e-39
0.57981884 2.8279731 0.77993357 3.6191069e-39
0.61900282 2.8298852 0.76053804 3.3378355e-39
0.66544789 2.8239403 0.77369946 4.3523419e-39
0.71752357 2.8274796 0.77934235 4.9948345e-39
0.75115335 2.8009644 0.79062897 4.3426141e-39
-0.01819253 2.8571579 0.78395832 5.7471734e-39
0.0029344112 2.871242 0.78519887 4.6318113e-39
0.06791684 2.8673079 0.77063239 1.5040883e-38
0.12550865 2.8699048 0.78391713 2.2958871e-38
0.16733575 2.8666213 0.78318644 2.2591529e-38
0.21937682 2.8818119 0.77559602 2.2316021e-38
0.27009821 2.8854342 0.76623851 2.2499692e-38
0.32070425 2.8802376 0.77843738 2.2132349e-38
0.37858325 2.8729081 0.77731222 2.0476796e-38
0.42449427 2.8684304 0.77811372 1.4046165e-38
0.57915175 2.8810201 0.79141223 4.3530776e-39
0.61929095 2.8833475 0.77453196 3.6205447e-39
0.66719294 2.8824959 0.76630962 3.9857188e-39
0.74915767 2.8770111 0.77601928 4.3440561e-39
0.76663303 2.8894334 0.76395774 4.4358916e-39
0.086108893 2.912158 0.772717 2.0846296e-38
0.12770428 2.930589 0.79338902 2.27752e-38
0.19357538 2.9279532 0.7749747 2.3234378e-38
0.2308947 2.9107928 0.76595747 2.3234378e-38
0.25863796 2.9186771 0.77729589 2.3234378e-38
0.30727899 2.9305043 0.78112566 2.2867034e-38
0.35198581 2.9087577 0.79084992 2.3234378e-38
0.41660649 2.924376 0.75683117 2.0387117e-38
0.47305581 2.9083192 0.76782793 1.523607e-38
0.51925111 2.9263759 0.78427863 1.910142e-38
0.58133066 2.9260559 0.75499135 7.3087524e-39
0.66248238 2.9082336 0.77825278 3.8964043e-39
0.54111135 2.9762526 0.75307423 2.27752e-38
0.57610625 2.9984932 0.75184953 2.1581339e-38
0.62773031 2.9896472 0.76469588 4.9120107e-39
0.66509598 2.9717488 0.77339679 4.8165641e-39
0.54315662 3.0068626 0.79778951 2.2958871e-38
0.59735149 3.0320578 0.77518821 1.8091591e-38
0.61185354 3.0174055 0.77665532 4.548633e-39
2.3056488 -4.6227145 0.82896739 5.1625741e-39
2.2599368 -4.4885812 0.81854266 1.2352389e-38
2.3706899 -4.4355402 0.81363112 1.3362925e-38
2.2365091 -4.3516989 0.8450889 5.1647363e-39
2.1992347 -4.3326735 0.80439395 5.9012252e-39
2.2907732 -4.3065958 0.80035639 8.8460651e-39
2.2279711 -4.2967238 0.83864772 1.152046e-38
2.3139172 -4.2900414 0.80850738 1.5667094e-38
1.5672258 -4.2265043 0.82351005 8.2039467e-39
2.1783605 -4.20474 0.83047915 4.7963069e-39
2.2454016 -4.2087522 0.83560085 3.5959743e-39
2.2745314 -4.2271318 0.84026724 3.5044989e-39
1.516566 -4.122745 0.83043313 7.8351726e-39
2.1348052 -4.0856528 0.81728899 5.899056e-39
2.2025738 -4.083252 0.82806218 3.5959743e-39
2.1268721 -4.01756 0.82626933 3.9654771e-39
2.1783948 -4.0464044 0.82173085 3.5959743e-39
2.573103 -4.0206199 0.8259505 5.0693009e-39
2.1220961 -3.9782526 0.84541708 3.0456844e-39
2.1766033 -3.9831085 0.8258456 2.8594953e-39
2.2168045 -3.9700518 0.81409317 2.215572e-39
2.3299944 -3.9530969 0.81627685 3.2300784e-39
2.3818467 -3.9649608 0.81089902 3.7818089e-39
2.5070696 -3.9861062 0.81889153 6.5465904e-39
2.5620315 -3.9594109 0.81442159 5.1604231e-39
2.5597539 -3.9104226 0.82218605 8.7571289e-39
2.1523707 -3.8801 0.83466744 2.9506063e-39
2.2835793 -3.8603904 0.83381617 1.5756186e-39
2.3132946 -3.8804083 0.810848 2.1255498e-39
2.4256911 -3.8720126 0.80425179 6.8181228e-39
2.4730864 -3.8619466 0.82385051 4.1473516e-39
2.5418572 -3.8520029 0.84142286 8.390147e-39
2.2132082 -3.8168931 0.82414037 2.4932449e-39
2.439132 -3.8114049 0.8169418 3.4097852e-39
2.4626701 -3.8086939 0.82501793 3.5934505e-39
1.2519232 -3.7613237 0.83310807 7.5622025e-39
2.102211 -3.7942035 0.80754948 2.5836244e-39
2.4697509 -3.7866447 0.82430804 7.1879983e-39
2.517246 -3.7645519 0.82886487 8.5748984e-39
2.1108124 -3.7468295 0.80265987 2.7665766e-39
2.3702805 -3.7033663 0.84874558 4.6068808e-39
2.4288874 -3.7342231 0.81901586 5.6231949e-39
2.4663861 -3.7232487 0.84211123 9.5814651e-39
-0.42276335 -3.6659946 0.81347895 9.8458285e-39
-0.37805614 -3.6583188 0.8285712 9.8454684e-39
-0.33290771 -3.6765573 0.84861791 1.0029864e-38
1.2839543 -3.6976433 0.8023445 8.6638444e-39
2.3435616 -3.6589248 0.81295085 3.6867252e-39
2.4290888 -3.6660893 0.83104336 7.5538899e-39
-0.43751544 -3.6342862 0.82474661 9.492882e-39
-0.36211783 -3.613065 0.80345607 1.0394685e-38
-0.32067218 -3.6204867 0.83137196 1.0120979e-38
-0.21029505 -3.6239185 0.81685281 1.2710035e-38
1.243917 -3.6401 0.81783354 8.5716502e-39
2.3623619 -3.6237388 0.84746361 6.2663895e-39
2.427212 -3.6301842 0.81739861 6.815969e-39
-0.43735677 -3.580127 0.84792435 9.2177343e-39
-0.3175472 -3.5967596 0.81684637 1.0487599e-38
-0.27077538 -3.5837622 0.84152842 1.1325653e-38
-0.24874231 -3.5854554 0.80132365 1.2710035e-38
1.2055936 -3.5646501 0.81342596 8.5712901e-39
2.2997365 -3.5554922 0.80330253 4.7012302e-39
-0.6265825 -3.5087013 0.81962019 1.0325891e-38
-0.28075102 -3.5274801 0.81875157 1.1509323e-38
-0.24763525 -3.5212457 0.84627765 1.2157943e-38
1.1216874 -3.5285378 0.83225483 7.7455063e-39
1.1680951 -3.5040188 0.82294446 8.5712901e-39
2.3067377 -3.5204096 0.8056438 5.3448018e-39
2.3794065 -3.5447464 0.81478316 7.2776632e-39
2.4081197 -3.5420225 0.81582069 1.3361853e-38
-0.71749556 -3.4616051 0.82789278 1.1063093e-38
-0.67086703 -3.4614341 0.81521976 1.1062734e-38
-0.6140855 -3.465853 0.8004781 1.1062025e-38
-0.46365982 -3.4977269 0.80879056 8.6667339e-39
-0.26826215 -3.4776373 0.8371501 1.132889e-38
1.0809368 -3.4901781 0.84183866 7.8377075e-39
1.1364408 -3.4558649 0.83400202 8.3876177e-39
2.3292797 -3.4880543 0.82609242 6.4500619e-39
-0.76570415 -3.4154294 0.8137573 1.1708462e-38
-0.74005878 -3.4374051 0.81531215 1.1431876e-38
-0.62148559 -3.4250731 0.81627649 1.1062025e-38
-0.5785405 -3.4181681 0.81333315 8.7585722e-39
-0.46780628 -3.4270365 0.81701535 7.3759951e-39
-0.43018445 -3.4068782 0.80151367 8.8511252e-39
-0.30263624 -3.4461663 0.81364077 1.1422536e-38
-0.28506014 -3.4393046 0.82413518 1.0409093e-38
-0.23009855 -3.4192965 0.83902287 1.1144489e-38
1.0646898 -3.429424 0.82820559 7.744786e-39
1.1119598 -3.4232895 0.82502538 8.3869002e-39
-0.89662957 -3.371419 0.83002317 1.1893934e-38
-0.72923005 -3.3620646 0.839221 1.2075097e-38
-0.67271709 -3.3823657 0.82903564 1.1614479e-38
-0.63015532 -3.3896928 0.81669807 1.0785798e-38
-0.57378936 -3.3735988 0.806813 9.0348046e-39
-0.53259635 -3.3815289 0.82019949 7.191964e-39
-0.4220593 -3.3556941 0.80548102 8.3897869e-39
-0.3222788 -3.3672986 0.83698422 9.4961387e-39
-0.27015042 -3.3840623 0.84652841 9.2191888e-39
-0.20453557 -3.3973031 0.84439754 1.0960816e-38
0.96680021 -3.3920431 0.80014783 1.3725972e-38
1.0063856 -3.3699796 0.83532751 1.0045722e-38
1.0733261 -3.3833952 0.83079171 9.3996102e-39
-0.93639201 -3.3227892 0.82737261 1.2169443e-38
-0.87881523 -3.3351054 0.80987608 1.2077248e-38
-0.77703595 -3.3208795 0.82300848 1.1983976e-38
-0.72766179 -3.3334463 0.82666838 1.1706314e-38
-0.67251378 -3.3450334 0.81417602 1.0693243e-38
-0.56593859 -3.3243752 0.83879203 7.560392e-39
-0.52743047 -3.3269033 0.82116097 8.113207e-39
-0.48138019 -3.3454869 0.81910479 6.1778149e-39
-0.42131621 -3.3071144 0.81021607 8.02101e-39
-0.3759799 -3.30867 0.81078947 9.3113887e-39
-0.34050936 -3.3148994 0.83612013 9.2195518e-39
-0.28123522 -3.318265 0.8076877 9.5850917e-39
0.94504738 -3.3244815 0.80218983 1.3910363e-38
0.98643547 -3.3483462 0.83555019 1.3633421e-38
1.0227923 -3.3307729 0.82207936 8.5716558e-39
1.0634091 -3.3466463 0.82009196 8.7553184e-39
-0.95167136 -3.2851682 0.83488941 1.2261282e-38
-0.8266269 -3.2795935 0.81845379 1.1708105e-38
